ply
format ascii 1.0
element vertex 674
property double x
property double y
property double z
property uchar red
property uchar green
property uchar blue
end_header
-1.9672349739450619 0.2275662566118820 6.2751023399898793 255 255 255
-0.7983628292047699 -1.0505226030235741 8.6105211250300080 255 255 255
2.1855775924285803 0.7271673696545601 7.6644847323948060 255 255 255
2.0604903851734058 -0.2876093920132903 8.2113457022634879 255 255 255
-0.6898625818337509 -0.7102071575208184 8.3628078796877947 255 255 255
0.6285659754984191 0.2827632097343202 8.3029984039905411 255 255 255
1.2725678498776600 0.2101580948703114 8.4978278436958750 255 255 255
-2.3907661347499229 1.2159696233076704 5.8908295295527120 255 255 255
-2.4077918424755942 0.7513073373572040 6.0149601635051155 255 255 255
2.1382753529576810 1.0010057475410463 7.7939023600135178 255 255 255
0.1585298820476602 -1.0475061977909179 8.9485739335903318 255 255 255
0.8965925030010442 0.5810668491248606 8.2779839433679800 255 255 255
0.7008882174013564 1.1675030030300411 8.1361278696696644 255 255 255
3.0655428137925642 -0.1617687520348011 8.1128153408373294 255 255 255
1.4767627939489019 1.3179347896431579 8.3749935642604036 255 255 255
2.2878738345352145 0.8128491865714909 7.7074645623638904 255 255 255
2.5721265713710966 0.5756386418044074 7.8205534400496441 255 255 255
-2.3037027518778141 1.1467256246867119 5.9405480679391518 255 255 255
1.0753791854182637 1.3806120191063302 8.2385675880803699 255 255 255
-2.3393448993511026 0.8942865500824847 5.9900270992512654 255 255 255
-2.0030335575886542 0.1650454062304120 6.2635555106584420 255 255 255
2.3204461556478684 0.4907018690617030 7.7501596776509043 255 255 255
1.8289168713449317 1.5014990433181550 8.4758758183959522 255 255 255
-0.8192245027326687 1.6041040640494306 7.4161779941411172 255 255 255
-2.0333450993608500 0.1181296237785017 6.2675332829422059 255 255 255
2.1512801963588104 0.4265666226404806 7.8331364309606215 255 255 255
-1.0855665636247707 1.4046257385518428 7.3394535399534782 255 255 255
-1.2440907311896290 -0.7077682145502983 8.1369872593911747 255 255 255
-0.2549522162125405 1.3413281427279016 7.4046516709390025 255 255 255
-2.5180528005372200 0.9030020538357243 5.9289006181554287 255 255 255
2.6890645208768844 0.0631216529199931 7.9700814469634258 255 255 255
-1.9539596877306282 0.4647100638128664 6.2173059846681262 255 255 255
-2.5023591268219434 0.7301527456893063 5.9771813393096895 255 255 255
-1.9894679260614889 0.2508872885745281 6.2582602499192976 255 255 255
2.8514284465758162 0.0319441395183882 8.0504274928841522 255 255 255
-2.5057838988765884 0.8293459818315946 5.9617711087801473 255 255 255
2.0652132195018540 -0.1907255537214981 8.1745045871146704 255 255 255
0.1746875475499107 1.5229701568518310 7.0515061863515802 255 255 255
2.4761370631661701 0.0062742262700064 7.9097866934141514 255 255 255
-2.4346751431145175 0.8907841239638953 5.9659821113634948 255 255 255
0.2910479682331951 1.5516544088570785 6.9812716895850464 255 255 255
0.5765654281775745 0.4747026025720461 8.1844517852335539 255 255 255
0.1665362518855317 0.6200851271109838 7.6326833535927268 255 255 255
-1.9817997528982294 0.4519388641915384 6.1993124624459099 255 255 255
1.8981626739085746 0.5980510378165745 8.5938739597596800 255 255 255
2.0066939987441064 0.1113111375981119 8.2989511880456828 255 255 255
2.8182180086751378 0.2606275220871876 8.0115259057684121 255 255 255
2.8354168740182590 0.2349733190102201 8.0192515835106430 255 255 255
2.8159170256393660 0.3973012823531877 7.9845769556629218 255 255 255
-2.0048774665966702 0.2232577021207875 6.2476802771918134 255 255 255
1.8669087133708089 0.1542280073649170 8.6930973865953423 255 255 255
0.9808203747131489 0.2927647177662941 8.3886508890348939 255 255 255
-2.0533300894997750 -0.0729422567400360 6.3047021206178835 255 255 255
-0.2828203222154115 1.5990269444163414 6.8384387683996071 255 255 255
2.8813270429559341 -0.0402058568063589 8.0859828728958654 255 255 255
-2.3721031861937121 0.9394941702783720 5.9743176925410095 255 255 255
-1.8194902793253280 0.4259702797509986 6.2524924793068921 255 255 255
2.9404997231763539 -0.1821060368326257 8.0705250145685845 255 255 255
-2.3541997682993783 0.7131492839926664 6.0318115732185307 255 255 255
2.4393122060139398 0.6321199838643976 7.7835257790105530 255 255 255
-1.7052086378207068 0.1356193251678184 7.4513145207352771 255 255 255
-1.2674715914712915 -0.4841372065169928 7.7482905347302724 255 255 255
-1.0457961611747018 0.5283066088642313 7.5973966613816728 255 255 255
2.1147691191812310 0.4029580448369891 8.0987910553320521 255 255 255
0.0623923609095362 0.5839446110805800 7.7180597628413192 255 255 255
1.6530090239778554 0.9153706239086130 8.4866630059262995 255 255 255
-2.3492049636768320 0.6766756509083931 6.0367429677649680 255 255 255
2.9141705849099786 -0.2116473659401360 8.0641975089929439 255 255 255
-2.2753699928409601 0.7173285644661357 6.0803084148105988 255 255 255
2.8225481572605373 0.3853774346470926 7.9892079866048178 255 255 255
-0.3386625022313035 -1.2375029034095810 8.7360678763134541 255 255 255
0.3459527969706631 -0.6254467903854251 8.6574050166492960 255 255 255
0.3930498654696352 1.5679636718896861 7.3823326201921926 255 255 255
0.3776113395803798 1.5679361470886568 7.3986057652259074 255 255 255
2.2866599009843815 0.2432410806291879 7.7843560951204749 255 255 255
-2.5099138657960767 1.0376398131014586 5.9205063150360475 255 255 255
1.6089568512297332 1.4650675579086476 8.4507194068776990 255 255 255
-1.5010380974322262 -0.4944331251246851 7.7074242924365741 255 255 255
0.3190541649391519 1.5954381388664391 6.6573600722766422 255 255 255
0.0224793241270368 1.5831215859336170 6.5670247097896555 255 255 255
-0.0501218680767002 0.7806117353378805 7.6218857410590619 255 255 255
-0.3655977807240129 0.5807048304131861 7.4763856755382561 255 255 255
2.6737452315544008 -0.4973589241239142 8.0924260613638470 255 255 255
1.3969757613066625 0.9513237381749204 8.5153397621846292 255 255 255
0.0747604050759480 -1.3617218702583540 9.0594957602567785 255 255 255
2.4947434450538668 0.0589139761373323 7.8902665871302622 255 255 255
0.4325541881867622 -0.0190414677850406 7.9373866461675533 255 255 255
-2.1312053772609056 0.2598219131002795 6.2112483200511104 255 255 255
-1.9633386219008826 -1.6495022851799988 9.4752931138381680 255 255 255
-1.2179989756095468 -0.7433345290031851 8.1786939920886415 255 255 255
2.4703617359096750 0.5826517539567491 7.8029481081400149 255 255 255
1.6629920661532149 1.4197848918822837 8.4924065540105982 255 255 255
0.7271162991755226 -1.2589479184184491 9.4073880963643308 255 255 255
-2.3846466075675052 0.5745837507712960 6.0625692394567237 255 255 255
-2.4784065023955488 1.1200424387415571 5.8984316575862206 255 255 255
-0.9161765101856942 0.5504487735495363 7.8398714921465613 255 255 255
0.0958561059239993 0.5424927915101624 7.7355905075813478 255 255 255
0.0754747496889396 1.5831619887451356 6.5837503963235848 255 255 255
-2.4772305758807995 0.6279706591563172 6.0246018762643114 255 255 255
1.6933740726291158 -0.8484525574298036 9.4360405982681694 255 255 255
1.0567423221012990 -0.3417205625916638 8.5458509055109744 255 255 255
-1.2434562179586302 0.5549855458235847 7.5195341911216715 255 255 255
0.2019085723957163 1.5505087579509276 6.9640679472143194 255 255 255
-0.2685056880615895 -0.3060122854345881 7.8410247918085387 255 255 255
2.4625365098779626 -0.4759839407668099 8.0169487214132129 255 255 255
-2.3547036320235146 0.5695614670072862 6.0634914039475261 255 255 255
2.2757600851048223 0.1490174688602601 7.8044851188279152 255 255 255
-1.4755714853526016 -0.3555540894969901 7.6683750029293547 255 255 255
2.4771698112005889 0.9267800582672372 7.7490842232813373 255 255 255
-0.0053768671123791 -0.5159590585306068 8.0042268835808574 255 255 255
-0.0100070149835136 1.5385404101567959 6.9565315284788669 255 255 255
1.8044419499530011 1.2268221483128745 8.5132984901570694 255 255 255
2.7252871740739493 0.5842997375878402 7.8739246404948302 255 255 255
-2.4371214158515957 0.7755230551911596 5.9286613893858418 255 255 255
-1.7830150101381144 -0.7683466246669917 7.9944586904590089 255 255 255
2.3683217081325338 0.1588797639567718 7.8434549994650755 255 255 255
0.0461888683219059 1.5712170090206774 6.6298570372916137 255 255 255
-2.6780220439299134 0.2134555404443117 6.0585345992477011 255 255 255
2.3091191136618261 0.2982089305638675 7.7928340864754899 255 255 255
0.4281127113502927 -0.3874952624201050 8.3021059631251717 255 255 255
-0.3067935641921966 1.6072576885891732 6.7766666088701681 255 255 255
2.3028408580941950 0.7503025951434901 7.7003528083332835 255 255 255
-1.1614977860448021 1.0610830124868171 7.4123918355970106 255 255 255
2.9272145484498853 -0.0378259981630138 8.1104556769384910 255 255 255
-1.8653308771206014 -0.1070431965833609 6.3737872526725292 255 255 255
-2.0677107857389476 0.2242372529262620 6.2185733673965622 255 255 255
-2.4041476402900686 0.8019068524059384 6.0021208939422808 255 255 255
-0.3574416251203187 0.6092593006733645 7.4859308827836815 255 255 255
-1.9892240947150004 0.1390003968272582 6.2781264924394362 255 255 255
2.5228760550155540 0.1498984495073342 7.9010516957629680 255 255 255
-2.0247109824451437 -1.3122219099904822 8.4211071710867920 255 255 255
-1.3651257791596858 1.5573757707360039 7.2230677517160871 255 255 255
-2.5089367286266548 0.6216530925219164 6.0027208389747262 255 255 255
-0.7742312218675926 -1.0792058177988137 8.6475124427760939 255 255 255
-0.5582337558080227 0.0011566256701787 7.6866949645571454 255 255 255
2.9586065437154843 -0.1531546972902710 8.0877869210200171 255 255 255
-1.9199186248419611 -0.1135089172834872 6.3567709036871554 255 255 255
1.9875690659229539 -1.0906543710626977 9.6407311427326174 255 255 255
0.5883752802636226 1.2571868502003252 8.0579994452830448 255 255 255
0.9961884190915536 -0.4613573612754937 8.5068941272609120 255 255 255
1.9156774873908970 -0.8492371168078713 9.9077213950793066 255 255 255
2.8446428983576895 0.2941479034580075 8.0072637453919189 255 255 255
0.5876537950055407 1.0282857397475325 8.0994942259847509 255 255 255
-2.2317650649659981 0.9907242470586244 6.0558248973078044 255 255 255
2.8430445997269826 0.5028238992258589 7.9690868424613432 255 255 255
-2.3565311308932841 0.6044721509809754 6.0536510656766094 255 255 255
2.2586299252559732 -0.1321073188156461 7.8050204330466846 255 255 255
0.2318783906687638 0.0188533962402394 7.8807763000932978 255 255 255
-2.3047459892706290 -0.0747070210011911 6.2759376925049200 255 255 255
2.9966296154019831 0.0886183100202219 8.0989305096331243 255 255 255
-1.9234730975284322 -0.0574919478872212 6.3450676758134126 255 255 255
-1.8025116091111411 0.5996585976491089 6.2136842976440869 255 255 255
-2.0777066027521225 0.3367234487872108 6.1873380129810283 255 255 255
-2.0113108257062113 0.1137031227785286 6.2788246027532786 255 255 255
0.3110166429132556 1.5679776839134230 6.8557946828923635 255 255 255
2.7467813295725865 0.8701954354963009 7.8860421021639446 255 255 255
-1.4745168713863852 -0.5150944575490144 7.6984748753452132 255 255 255
-1.2392086090163295 -0.7743989160231816 8.1735134068324591 255 255 255
-2.3558614720735753 0.6443176788177701 6.0456333365029371 255 255 255
0.1067640538343495 0.8697407142212115 7.6682388784567177 255 255 255
2.0187578084520355 -0.0436451466645918 8.1548332188230788 255 255 255
-2.1964401095528592 1.2914053539798687 5.9281209965971922 255 255 255
2.0447166357923638 0.9550652922567888 8.0753868221704153 255 255 255
-1.9152346998254703 0.0459428389403114 6.2612868841003557 255 255 255
-0.0058494720228507 0.2930903754013557 7.8810875401160025 255 255 255
2.4451383380708620 0.7581581438536827 7.7789989801631423 255 255 255
-2.1136088862357498 0.7944966072711133 6.0969009094894844 255 255 255
2.4992501247199428 0.2721454490494111 7.8894609036360501 255 255 255
-0.7415624952848585 -1.1488831862515980 8.6577459854049685 255 255 255
0.5977360866277525 -1.1816539408282929 9.3106309613455576 255 255 255
2.8270570219023385 0.5990132522745264 7.9164805448351796 255 255 255
0.3683617894851862 1.5775626877458773 6.9056594767246873 255 255 255
-2.3843666766680194 0.6285927786867259 6.0376077687615179 255 255 255
2.3242890082235368 1.1961791553507783 7.6465245687033159 255 255 255
0.8067485282788041 0.6040408403597693 8.2345895406447500 255 255 255
-2.4014051200930995 0.8567588574650267 5.9856776453572458 255 255 255
1.7613518581567120 1.0105516681368518 8.5223360953185328 255 255 255
2.4732469824422294 0.7216117755558971 7.7856464827797067 255 255 255
1.6180121385194277 1.5771917266306938 8.3493774962449212 255 255 255
1.8868158859257049 1.4713487613853324 8.4679366075623168 255 255 255
3.0069735430967439 0.3151508862347311 8.0928109123924852 255 255 255
0.3537146694533130 1.5872428214178342 6.7374333948552430 255 255 255
0.8300491655830015 0.2895237832529917 8.3268340785034738 255 255 255
-2.5359903697061235 1.2259706842263829 5.8434059873549815 255 255 255
-2.1103159185910134 -0.1559889795400287 6.3158718102047260 255 255 255
-0.9711253542295482 1.6120657163129957 7.0554168260451222 255 255 255
0.9431003398577851 -0.2150650870960326 8.5214442119655853 255 255 255
2.0310309721617119 -0.9858084509813150 9.5824170593757323 255 255 255
1.8659576404027354 0.0873107697639042 8.6301037481447622 255 255 255
-0.7176131665429374 -0.6457009923359535 8.2862088639203968 255 255 255
-2.3721787203157563 0.3980861633933910 6.1008100322325403 255 255 255
-0.8264158506912959 0.1772876591319031 7.8044263380131067 255 255 255
-2.3602582777778713 0.5337818456927182 6.0697459874802053 255 255 255
-0.3403209186952166 1.2222397221794636 7.4766144291097616 255 255 255
-0.3005665582941417 -0.5682562783482912 8.0845198813090580 255 255 255
-2.0761819642760884 1.3137381670779043 5.9779012382785401 255 255 255
-2.0641831453809831 1.3971166375076600 5.9633197913203349 255 255 255
2.1591055361902565 0.8960239669237067 7.7485817114735669 255 255 255
2.9670919654600945 0.1498630199051665 8.0825053199311157 255 255 255
-0.7175100766405350 -1.1773845432838390 8.6938989195425691 255 255 255
2.8469594550154258 0.1866941143124737 8.0320333426327188 255 255 255
-1.4647847621842522 -0.2714934214594866 7.6350467556724428 255 255 255
-2.5257676002068705 0.2393577854858148 6.0929938918013109 255 255 255
-1.3612134705436332 -0.5894461501932503 7.7359576737307378 255 255 255
2.8149900467230715 0.1726002596071601 8.0192751002833678 255 255 255
2.4419646544725810 1.1503725860183871 7.7046574090586262 255 255 255
-2.5427899393825650 0.8179942025393444 5.9404338984932341 255 255 255
0.9676337337280574 1.5698316427842594 7.7969811647277902 255 255 255
-0.3228177253536175 0.8008355830760592 7.5378207571074141 255 255 255
3.0484067167561197 -0.1455762642142353 8.1230069942124210 255 255 255
2.4722682081006733 0.9853096425798646 7.7482716754752561 255 255 255
1.4610041905936701 0.2299981626748118 8.5497970175720237 255 255 255
0.8881110071028614 0.3498169338790218 8.3272098037179756 255 255 255
-2.5613728629373442 0.7232101550817481 5.9694954496175496 255 255 255
1.4339303644841337 1.4108025622614015 8.3369994513763110 255 255 255
-1.9152146381424953 0.1627861859141671 6.2976708840902216 255 255 255
2.2407223587860909 1.0286199887957590 7.6143460417125244 255 255 255
0.2004839339877655 1.0540138369924106 7.6720508403012833 255 255 255
0.7064353399741361 1.4733670488210189 8.0607235446460770 255 255 255
-0.7677329114122605 -1.0616910361829894 8.6275744856055834 255 255 255
-1.3873629068047209 -0.5712646745127488 7.7693629736352774 255 255 255
-2.4885959183180200 1.3284170394643056 5.8333696845585834 255 255 255
2.5136969942079492 1.1516323674556064 7.7318729893090419 255 255 255
1.6529601599042252 -0.9552028391126728 9.4647795299278279 255 255 255
-0.7455793826664057 -1.0994269674749739 8.6613949320234749 255 255 255
1.8962062789316900 1.4258139412180433 8.4616052937312940 255 255 255
2.7831782684692548 1.1683214941939573 7.8509790621304951 255 255 255
-1.8281569872294672 -0.0630935215105749 6.3695372667332890 255 255 255
-0.7079607453703167 0.4369416981661412 7.7190868476622940 255 255 255
-1.2264010867541706 0.2133098095993674 7.6026117564692921 255 255 255
2.0432090845281907 0.7242946926190255 8.1469350475349351 255 255 255
1.3438097753875335 -0.2129094025731533 8.6609330699247380 255 255 255
-2.5292148269161352 0.9587170560338327 5.9277102002468931 255 255 255
2.4390195919368653 0.9386042773530948 7.7430524788246862 255 255 255
1.6633591202282398 1.5255459498859520 8.4664721437969526 255 255 255
-2.4335448808336579 0.6403210437395452 6.0237169945738067 255 255 255
2.8085103624856744 0.1823721085933455 8.0164945596272030 255 255 255
-1.9870598163257889 -0.3390171642761928 6.4210304631295845 255 255 255
-0.2539947573434035 -0.6209888985243954 7.9805926622173740 255 255 255
2.0691745660424097 -1.0705572729443391 9.6088635389123151 255 255 255
1.9757291190481885 -0.9860615097543355 9.8627051065231424 255 255 255
1.9561486611776511 0.0050626656305316 8.4003256568638971 255 255 255
-1.3598296600880679 0.5261693902228110 7.6474561538943115 255 255 255
0.9740607013288262 -1.1648716836916255 9.4348709246703208 255 255 255
0.0553741864423915 0.1217848269657435 7.8718244409184424 255 255 255
-1.1779135967129335 -1.3011812935424958 8.7476189945530187 255 255 255
-0.1812062413806283 -1.3500347713713299 8.8741000725710641 255 255 255
-2.3407391626990401 0.9266077083034081 5.9782515031083960 255 255 255
0.1554827394327328 -1.0994659314279602 8.9494096649448132 255 255 255
2.3683087735675219 -0.9663796984682722 8.4136882020816426 255 255 255
-0.7691463282161393 -1.1349718883367550 8.6494031199935293 255 255 255
0.0682333645329081 1.3270179415092787 7.6535736072782417 255 255 255
1.6981444321652968 -0.8863958333590368 9.4359997999158551 255 255 255
3.0149502306740565 -0.0937603509582132 8.1530378969945509 255 255 255
-2.3913181766449640 0.4441850464433504 6.0833244830042954 255 255 255
-2.5450542459525987 1.0434944388324756 5.8924607214154499 255 255 255
-2.3198480667590511 0.9501019776920638 5.9796255610080422 255 255 255
0.2444052024470549 -1.2896107570845634 9.2336625568879729 255 255 255
-2.4355069084811114 0.4983423826421611 6.0589844855297512 255 255 255
3.1477829495566496 -0.2021423320435847 8.1546353152884716 255 255 255
-2.5365054344728963 0.7767802537540383 5.9628907061586123 255 255 255
1.8806411817630264 1.3511469193315289 8.4887366216379672 255 255 255
-2.1082182306274522 0.9894974562794204 6.0670668379515549 255 255 255
2.0571394791272395 -0.8086733517927557 9.2500620968132541 255 255 255
0.8261896779978222 0.1815776419812271 8.3461385980041474 255 255 255
2.3667648070156067 1.0778257816366452 7.6764401320156832 255 255 255
0.8797512316118702 0.0167127110307368 8.3874516619329551 255 255 255
-2.3299352992344553 0.7302211837364677 6.0266571018872215 255 255 255
-2.2464079534822301 1.1716588234572993 5.9422781271071177 255 255 255
0.4289714238916221 1.6031315560557184 6.7151378465060629 255 255 255
1.9081562400058820 -0.9843499121882310 10.1546427474309482 255 255 255
2.4063524265233469 -1.1796003647799105 8.5823884105406201 255 255 255
-2.4968810040463163 0.9405421961786313 5.9369230824421511 255 255 255
-1.7575056327683882 -0.7287508531000659 7.9559472965961557 255 255 255
1.4767082113492052 1.6365235671125244 7.9784118454300605 255 255 255
-2.5399401149722287 0.4217853789426958 6.0551967185011719 255 255 255
-0.7367910653271049 -1.0499981758696137 8.6393626010010447 255 255 255
1.5595101669841711 -0.4032313147813065 8.6344389812774196 255 255 255
-2.1724984287096598 0.5338285287507614 6.1095789282785855 255 255 255
0.8108591032303405 0.2389431572846995 8.3137234970649700 255 255 255
3.0094503547958968 0.8107532315500326 7.9803330946085875 255 255 255
-2.5188130502514965 0.3045214376883487 6.0168188792903665 255 255 255
-2.3632764176760626 0.4389099664039887 6.0856636844270895 255 255 255
3.0015660083096027 0.5092507757865057 8.0220062692143461 255 255 255
1.6891181728838620 -1.1542980635667353 9.4798553375527810 255 255 255
1.4771186624393100 1.4252724554141034 8.3510340297945813 255 255 255
-2.1483979528998218 0.3351453146312942 6.1701399040264810 255 255 255
-1.7946287347995977 -0.5290672066037860 7.5829992351822035 255 255 255
1.9371645538383471 0.6320040652457487 8.3801142845786458 255 255 255
-2.3536295161169765 0.1833682567652007 6.1539091869727729 255 255 255
3.0071690885102358 0.4095932151763626 8.0519128306611272 255 255 255
1.4323484532070301 1.6087925428242116 7.9539656864497337 255 255 255
3.5001999316904011 0.1763757092527034 8.0631400963292634 255 255 255
-2.0137668587938498 0.1476964743177775 6.2694226862671165 255 255 255
2.2740237887449446 0.8650509469170925 7.6870533134262002 255 255 255
-2.6250773958507923 0.7455588212828221 5.9489881609646122 255 255 255
2.1370663716137086 -0.3686298975837196 8.1480446158749622 255 255 255
-0.1049947694792105 0.5569633107637426 7.7183548541010643 255 255 255
-1.9474615241534212 0.0911727488534806 6.2945738807679028 255 255 255
2.9981976955185599 0.1958903895288739 8.0768135835587955 255 255 255
2.0346610962186191 -1.2440659127921487 9.6146855125624988 255 255 255
-2.0157199307246834 0.0079843023982689 6.2992544534713106 255 255 255
-1.9129915283364871 -0.2288341686246558 6.3874985622205287 255 255 255
0.1104388135453210 -1.1043387922646744 8.9407364066423405 255 255 255
-0.5869966832057968 -1.3114950320343568 8.8393755707574559 255 255 255
-1.7701491613020646 0.4397261891028036 6.3062574216715204 255 255 255
2.1314009796422715 -0.4418059351635766 8.2985660876547307 255 255 255
-2.4960163845752144 1.1178392005172266 5.8925195092793974 255 255 255
2.5146235234952363 1.0364053977177188 7.7601386614928973 255 255 255
-0.9510184735688391 0.5782259079462598 7.6121536394498373 255 255 255
2.7701537727947283 0.5521633120912498 7.9318230319593512 255 255 255
0.9971844483160626 -0.2920935833307948 8.5252350293059269 255 255 255
2.4216042692962487 0.1140751503493117 7.8629787466784888 255 255 255
-0.1125037139091088 0.9590353132042085 7.6553254160731132 255 255 255
-2.3849824132873008 0.5007071761757453 6.0695737833725918 255 255 255
-0.4310098800584058 -0.0306519399660425 7.6586520963790496 255 255 255
2.8249213972463383 0.6544883312306461 7.9466888285001405 255 255 255
2.4017888354451009 -1.2321032578621935 8.6000353190755057 255 255 255
-2.0189136535080645 -0.1037626080657682 6.3291119201491597 255 255 255
2.9739414948040062 -0.0475198170429266 8.1386221106470558 255 255 255
-2.3915154458710974 0.3655002533207108 6.1092943158945587 255 255 255
1.8410274510589819 1.5627468100378177 8.4615558592164444 255 255 255
1.4547370538674012 1.5767377612316931 8.2944863026566029 255 255 255
1.4373136489043352 1.6400342536486641 7.9615041952998737 255 255 255
2.8293393195925662 0.5855182276939659 7.9288240451405301 255 255 255
-1.3611002984397498 -0.6195739762871981 7.7516721712757723 255 255 255
2.7687823485753236 0.0822636847371843 7.9963362385406285 255 255 255
-1.9197830213708362 -0.6154023219605548 7.5480828540342388 255 255 255
2.8766118766664874 0.7732326262153526 7.9494739815208932 255 255 255
1.2441945056802903 1.6504508117774632 8.1589168171001347 255 255 255
-2.4539608400585857 1.1181888992424662 5.9037361395274344 255 255 255
-1.2518346162860263 -0.4032603211820087 7.7342847845904235 255 255 255
0.5822212811491259 1.6352396158029074 6.8706034829417417 255 255 255
-2.0492622554345967 0.4464215810477528 6.1712791456934157 255 255 255
-2.0141062861343291 -0.1188049816330739 6.3349510140649770 255 255 255
-1.3286628348423248 -1.2379612810449028 8.5883152873160675 255 255 255
1.4366638651174781 1.5237425066529744 8.3283946563457327 255 255 255
2.0747388880616762 -1.0383211117719620 9.5896466831606979 255 255 255
-0.8914200857256456 -1.3441106934703830 8.8554035867633711 255 255 255
2.2347880363819228 0.8112554003268192 7.6729310445732022 255 255 255
0.6549595389895700 -1.2637919704180796 9.3978679018364950 255 255 255
-2.5215805413559118 0.8691296881524765 5.9371731722164256 255 255 255
-2.4988443784352210 0.6767516397218942 5.9937312268274994 255 255 255
2.4745842573930541 0.8246867185760696 7.7771653176127078 255 255 255
-2.1073687645256847 1.3822158441621946 5.8712231133668684 255 255 255
2.3513044102343290 0.3039936737475160 7.8022990874211811 255 255 255
-2.3765516499155170 0.1733737573670415 6.1498993937380648 255 255 255
-2.0381401032994892 -0.0145238222036128 6.3018442259326681 255 255 255
-2.6356647873184627 0.7428738105326469 5.9317093472067599 255 255 255
-1.7196790671923621 -0.4118218145464531 6.4322368742536780 255 255 255
0.0601698054965077 -0.0423852403117023 7.8437266468985340 255 255 255
-2.3927251964967526 0.2265140745796003 6.1301264422014539 255 255 255
3.0178167525279940 0.2531192855694038 8.0709132557518544 255 255 255
2.1575134730737719 0.7906108929149217 7.7614966515269455 255 255 255
0.1853729798227026 -1.2854896633988770 9.1895551643401951 255 255 255
1.1930105721356838 -1.2411998130580624 9.5659544610654255 255 255 255
2.7416387832902371 0.5518613749748510 7.9244678303288483 255 255 255
-2.0219089688155005 -0.0685312492161882 6.3193965722647665 255 255 255
2.1844476445391252 1.2023911103460962 7.6651021215858721 255 255 255
2.8131005011581980 0.2904754629877622 8.0009833355005764 255 255 255
-2.3956311674081001 0.8884875804413320 5.9723810721771269 255 255 255
0.1848230596546368 0.7933281276811414 7.7207778682037169 255 255 255
-0.7427841718370988 -1.2018960886634844 8.6897323862787044 255 255 255
-2.5459872065161173 0.5597459249453542 6.0077970815062232 255 255 255
-2.5575917468013967 0.2128344815860171 6.1013537034870753 255 255 255
-2.6263794648176120 0.7457505468845733 5.9489966551540192 255 255 255
2.0280983007180562 0.2941173999398918 8.1917220115242468 255 255 255
2.2940856844818471 1.0359426951192583 7.6662896983590585 255 255 255
1.4180294695063858 1.6312673685475227 7.9848158371049269 255 255 255
-2.4845635778874322 0.4403700540561450 6.0586198708846934 255 255 255
-1.8641580272578879 -0.5358963688868635 7.5611871829499453 255 255 255
2.5420073939481433 1.6084226883974448 7.7552259004239739 255 255 255
2.3345203404538895 1.1361047782374263 7.6667233181744958 255 255 255
2.8870065610330817 0.3985523883585061 8.0057033460645766 255 255 255
-2.5062139871677194 1.0803766487104440 5.8805419078576264 255 255 255
-1.9893002880708572 -0.0090276910988556 6.3191171773016466 255 255 255
-1.8313794749660146 -0.1708519813220011 6.3969654517042374 255 255 255
1.1148922595729263 -1.1226326224546668 9.4436374098081934 255 255 255
-2.3593437669866755 0.3822635253713872 6.1010616227294632 255 255 255
2.0564586517326715 -0.0072036414722833 8.0708964213691008 255 255 255
-1.9944067870788333 -0.1789413250860381 6.3411636170814969 255 255 255
-1.7395673792434299 -0.7644925270155722 8.0147793099955091 255 255 255
2.8329662288526922 0.9433169498966479 7.9095629593246173 255 255 255
-1.6929034583806801 -0.7850554822416790 8.0083088757591145 255 255 255
0.5903386368903156 1.3569204506869625 8.0376920299944512 255 255 255
0.4229416321840472 -1.2805978149853769 9.3220630350413902 255 255 255
-1.1504595960418924 1.2836004508285790 7.3468796150943456 255 255 255
-0.9266459981588854 -1.3119848977108839 8.8171994525631767 255 255 255
-1.7551978708120681 -0.7916851652045287 7.9927901426032726 255 255 255
2.0539353696953468 -1.1783682634943962 9.6226147520910121 255 255 255
3.0191508490206629 0.1415448458090534 8.1039609192789133 255 255 255
-0.2902850065535151 -1.2744288223071500 8.7920911785770972 255 255 255
2.5977298387044474 0.8334606847844716 7.8028056872226843 255 255 255
-1.8521484619313915 -0.2399452059565534 6.4047524215764788 255 255 255
1.8134443456908826 1.6925894877537186 8.4259538424202507 255 255 255
0.5175146453153071 1.6015511479697826 6.7266379336816904 255 255 255
-0.5055568722827226 1.5663545585562066 7.3158785836406377 255 255 255
2.7075585720572697 0.8406499094716077 7.8666106469896002 255 255 255
2.6956214649803987 1.0431178349780266 7.8618170528387994 255 255 255
-2.5186644460734477 0.8660297992101909 5.9362701429364551 255 255 255
0.1417826866434667 -1.4048932826653751 9.0077130168678945 255 255 255
0.4107815704155147 -1.1741024986944579 9.2222658285692116 255 255 255
-2.3770181460705739 0.0772823026993551 6.1716989926048260 255 255 255
-2.0170283560042446 -0.0272893693567024 6.3130877460564241 255 255 255
-2.0325278216064961 0.0908665616944931 6.2723114591946665 255 255 255
2.8587543234203521 0.5193733063878643 7.9782802068055174 255 255 255
0.9857539986448457 1.6750004995162766 7.7718468675049559 255 255 255
2.5538525453710421 -1.0346565611805376 8.5451355728858367 255 255 255
2.4243356980830484 0.8987390669687361 7.7548596338318871 255 255 255
-1.7227080332348679 -0.4462399226844344 7.5923884302538180 255 255 255
-2.5608898590461395 0.2204001150760373 6.0958470771182443 255 255 255
2.0326463453702361 -1.1262529289608620 9.5934789734546797 255 255 255
0.6897861200184590 1.6757741675666584 7.0844056543262299 255 255 255
2.8075360621905774 0.0767509777313309 8.0349759132607694 255 255 255
2.2351338423925280 1.4431516761982002 7.5968591927066491 255 255 255
2.0136320826430945 0.5080617315811137 8.2245772800536621 255 255 255
-0.7694470565283503 0.2342038329915811 7.7573781740983891 255 255 255
1.4886060612148178 1.7091813191678695 7.9800579543883110 255 255 255
2.4827320400897626 1.0399558328372456 7.7333810619393182 255 255 255
-1.9230037835379665 -0.1664380338320569 6.3773932372092430 255 255 255
1.0084147510730541 0.9702712540843778 8.2743233083012395 255 255 255
-1.9833182514637899 0.0938534069188636 6.2833521729315223 255 255 255
2.9972504114513003 0.5004226816689229 8.0321864497236568 255 255 255
-0.5972214096677069 0.9193452421791827 7.5591021076048861 255 255 255
-2.4436764527695813 0.4427335888751738 6.0839959450100745 255 255 255
-1.7285070079853202 -0.5079085562622822 7.6102572804309094 255 255 255
2.7989305061146004 0.2444578294298475 8.0075581434288221 255 255 255
-2.3926707572688755 0.2534001495630330 6.1239821992981014 255 255 255
2.4477770586973024 1.1992148043455984 7.7086401235582791 255 255 255
2.9819538843516438 0.5914569250999919 7.9912702176536978 255 255 255
2.8448200884007258 0.1394843282292204 8.0374350860621266 255 255 255
1.3853543996219104 1.5307185373626879 8.2934336786359903 255 255 255
-0.7426969704665489 -1.2509093263423121 8.6773395401868587 255 255 255
-1.8833159983079149 -0.3341353461028267 6.4082119908891251 255 255 255
2.0237935539116387 1.0963869274675153 8.1233473008507158 255 255 255
2.1347626554572749 -1.0746258870414549 9.4006633737732965 255 255 255
2.2969819809014851 1.2516280311081436 7.6378383397051834 255 255 255
1.6369852817342716 -1.1002089051039488 9.4711339153983616 255 255 255
-2.2036281812784559 0.2008837298867244 6.2351809423327271 255 255 255
1.8847911504211490 1.5724261419244367 8.4577527844873028 255 255 255
1.9924689311890924 0.9864018851621185 8.1968327839752160 255 255 255
-1.7998928111349433 -0.5864900773629642 7.5787217623023899 255 255 255
-2.1164167414421597 1.1059037873501909 6.0702282905986582 255 255 255
1.2329757119687152 1.7499878303386391 8.2145624785542246 255 255 255
2.3054489315961080 1.0134990523683678 7.6718091063798068 255 255 255
2.8611821142050728 0.9033522948665202 7.9199769699487534 255 255 255
-0.6245107356199244 0.1592757234644570 7.7513303687795547 255 255 255
-2.5173548792589098 0.3610228244941160 6.0740716956984082 255 255 255
-2.5524125507124529 0.0278645879216951 6.1259463081846501 255 255 255
-2.4664762700366363 -0.2634086687468953 6.2372461884890669 255 255 255
2.4335074012006017 -1.2203361339173369 8.6203112622505831 255 255 255
0.5432985209180651 1.6044350040622279 6.7339669150058326 255 255 255
-0.3567787890875837 -1.3824881719572115 8.8461028960240178 255 255 255
2.4804053155045938 1.1500699296260504 7.7136100534754162 255 255 255
-1.8394965774291916 -0.5998032185169246 7.5760115801815626 255 255 255
0.8703945077265315 -1.1881095171995684 9.4268029184186837 255 255 255
-0.8546952965205643 0.5883983215639818 7.7244042610784289 255 255 255
-2.0388833820734029 0.2481642471466308 6.2271328414529572 255 255 255
1.9850374313217385 -0.9950855629916324 9.7140406830691184 255 255 255
-2.5476416606007275 0.3712850151719526 6.0388408827369497 255 255 255
2.9760788858288900 0.9535986445533881 7.9559897296501054 255 255 255
1.0235432305168841 1.7686337379298760 7.7428953983938378 255 255 255
-2.4864523930864153 0.3578649613616275 6.0738282457375554 255 255 255
3.5220470813450464 0.8929919072132583 7.8989759893927305 255 255 255
-2.3298918727731661 0.1420358077764210 6.1759392720266293 255 255 255
2.0340640235664749 -1.0778604562713676 9.5912162061928363 255 255 255
-0.9755526961998867 -1.3595416578645672 8.8616391444640872 255 255 255
-2.3562267813342270 0.3169280849141235 6.1276285862353204 255 255 255
-2.0144427236120528 -0.2294896627151159 6.3575648716657058 255 255 255
-2.0225799494276986 -0.1779502233940391 6.3359063227508177 255 255 255
-1.7332263580264022 -0.3429152822967935 7.5584333110151052 255 255 255
0.1176842168694693 -1.3907451240507889 9.0410606521279888 255 255 255
2.8232315380031530 0.5043546717776176 7.9833885402291314 255 255 255
-1.9412969271330718 -0.1088441763901114 6.3467916811630953 255 255 255
-2.5607943808234181 0.3062671971432422 6.0380243810572694 255 255 255
1.7209382206100978 1.6054713179808044 8.3875019018170729 255 255 255
-1.8806607950841949 -0.5924135954732523 7.5545206131541338 255 255 255
3.6668110378669905 0.2195895798218433 7.6011025289302667 255 255 255
-1.7493305270063528 1.5426263399052593 7.1528193101593898 255 255 255
1.1419897473932024 -1.4583831621417116 9.6208430991835012 255 255 255
2.0159885960646493 1.5159539634867176 8.1128309574339319 255 255 255
0.2824118196921494 -1.3295676768858689 8.7999306819366385 255 255 255
-1.8347706603310778 -0.3515633101036884 6.4387421296442406 255 255 255
-2.4773993440549922 -0.0875761614146596 6.1873319242135016 255 255 255
2.6921678916362914 0.9901531518785320 7.8660856983619523 255 255 255
1.6420534867682219 -0.9972053926065143 9.4551940385054607 255 255 255
-2.0731787952563723 -0.8287337870012969 6.4572255062870481 255 255 255
-1.3176362248696498 1.6381687705418437 6.7750418509912338 255 255 255
1.5065985727714735 -1.2752875931821273 9.8597257597112389 255 255 255
-1.9359592105525569 -1.3911722505509294 8.5175303727836447 255 255 255
-0.3895370195361134 -1.3691803389824291 8.8279620737984743 255 255 255
3.4929027328394184 0.1958351313649566 8.0778454300127081 255 255 255
2.4244203202027541 -1.3212667440153378 8.6556515174568727 255 255 255
-0.7227873443764072 -1.3223115228609672 8.7740367660705818 255 255 255
-2.5286004192244125 -0.0885091968453727 6.1657019312458052 255 255 255
2.8285403384160559 0.0282598309002686 8.0495865445661305 255 255 255
-2.3794637697487140 0.0972047132141380 6.1718860825143187 255 255 255
-2.0218440879139412 -0.2118236655723622 6.3512576768918967 255 255 255
-1.0735934738126467 -1.3180502973158772 8.8034020409510330 255 255 255
1.0364500477309486 1.7198329621116408 7.7764222745205753 255 255 255
-0.6203148889099221 -0.9863106903933043 8.6142884065951026 255 255 255
0.9436888809674226 -0.2607088272313061 8.5784760626726229 255 255 255
2.9417812384954551 -0.4019295615536519 8.2659185678657465 255 255 255
-1.8764158726808173 -0.2961084000581282 6.4120969823338214 255 255 255
-2.4640213229591574 0.1792031452510735 6.1116376955823766 255 255 255
-2.2701743480927150 1.1100159888644157 5.9418537786511907 255 255 255
0.0349898343119300 -1.4853135110289475 9.1591273304540390 255 255 255
2.8528260922566884 0.3984736033211732 8.0000510313634763 255 255 255
2.4493758304365754 1.0862931724729246 7.7134286044660136 255 255 255
2.5120558573021636 0.9260086354610307 7.7741290024455010 255 255 255
2.0331417698287155 -1.0230092792938683 9.5685060481738002 255 255 255
-1.4991347956560925 0.5025187353362386 7.4528991246224541 255 255 255
3.5255690207023953 0.1985495574640285 7.8815045110773614 255 255 255
2.4078901129825683 -1.2026291178448347 8.5927208606422685 255 255 255
2.2937593544241328 1.1439859433363999 7.6554514659666877 255 255 255
3.1077906902832226 -0.1822460919587295 8.1297955478263138 255 255 255
-1.7648260051833731 -0.6093415841577930 7.5950394198431574 255 255 255
2.7004273165967874 1.1493523585181584 7.8540492630174423 255 255 255
-2.0410576195204921 -0.2310746015025124 6.3444280677346514 255 255 255
-1.1090612190164586 -1.3524732280002725 8.7744697974443806 255 255 255
-2.5740618906046686 0.0742777450911998 6.1101884344732529 255 255 255
-1.7836111246281481 -0.4910017708819638 6.4437089622625505 255 255 255
3.5188683524055002 0.2985785948630702 8.0592983452064946 255 255 255
3.6126636988039205 0.1443911547923214 7.6057664336168003 255 255 255
-0.9355552882055782 1.6146481146377134 7.2662197565301376 255 255 255
2.4706434794402314 -1.2343962975686262 8.6457127246542402 255 255 255
-2.2497000244094760 -0.0454964173367396 6.2525892976776314 255 255 255
-2.4150181784389888 -0.1333283917450457 6.2119237572589459 255 255 255
-2.3737091857356281 0.1273419007867438 6.1614200946110591 255 255 255
-2.2358309953510882 0.5843854682273244 6.1131174234545931 255 255 255
1.1563099769499372 -0.5773477764778097 8.9439357675030475 255 255 255
-2.3805248176089013 0.0569878479602677 6.1804187500630681 255 255 255
0.8912097528375235 -1.2459340538852903 9.4692723237297578 255 255 255
1.1283957779382958 -1.1790575064804643 9.5058209333683745 255 255 255
1.1263125706152202 -1.4947067896807418 9.6244176927460430 255 255 255
2.9496552171044370 0.8682349717284481 8.0086107726981393 255 255 255
0.8919924983329316 -1.1065428661834957 9.3598051949641015 255 255 255
-2.5291984833734964 0.7935989194848898 5.9630208412728161 255 255 255
2.7808058183656801 1.0552103095151300 7.8587499668414891 255 255 255
-2.3436247831751871 -0.6263190676748944 6.3920358845188057 255 255 255
2.2731733639728304 1.0875875764062566 7.6429539282303294 255 255 255
-0.2850662930008291 -0.6714507799436386 7.9641662427022331 255 255 255
-0.1167276373622701 -0.2426761459993198 7.8569082931156187 255 255 255
1.6985652441471164 -1.3572090183680241 9.5098991591194508 255 255 255
2.4738391807938487 -1.2144883076418882 8.6376579992462528 255 255 255
1.6910846825754040 1.5577056167528580 8.4948308261202339 255 255 255
-0.5062812700210844 0.6791268386901208 7.4716141852976712 255 255 255
-1.7722665097619610 -1.3663244311963467 8.5837295491389796 255 255 255
-2.5365089156381235 0.5096682568731219 6.0312737304993433 255 255 255
-2.3473943105455559 0.2399056569134606 6.1444245173204726 255 255 255
2.0830149413147021 -1.1917680284008010 9.6353668824287197 255 255 255
-2.6492158649638902 0.1419965059772327 6.0831622992351555 255 255 255
2.3033000287488394 1.2299776790697827 7.6287380937706679 255 255 255
-2.5358087925347572 -0.0403469130346733 6.1488788040243065 255 255 255
-1.0465369332011811 -1.3563051448914525 8.8412673994125939 255 255 255
-2.5679474661572548 0.0091396198319650 6.1389244516738435 255 255 255
1.9977147176336245 1.0333378977905050 8.2076332259013611 255 255 255
2.8591019292732276 1.1135955448390942 7.8893145910238474 255 255 255
1.8635656931668019 1.7676912626075154 8.4093497162551554 255 255 255
-1.9665554318088379 -1.4030086646828779 8.5052181154651478 255 255 255
-1.9874461020343366 -0.1145290093680103 6.3375499388219163 255 255 255
2.9562886376551187 0.7864134461295103 7.9781778195474082 255 255 255
-1.4553689487927715 -1.2480686149446658 8.5833655260084534 255 255 255
-0.2997328767127503 -1.3600411572081459 8.8576342220487323 255 255 255
-0.9919416842257630 0.3059462688563574 7.6004281929024238 255 255 255
-2.2505681395396464 -0.1934092047244293 6.2575834604815785 255 255 255
2.9038725251411597 0.1882425592081183 8.0519705059649684 255 255 255
2.0107514097382770 0.6354277085996597 8.2366175887363742 255 255 255
3.0116997608433524 1.2626725203800107 7.9107896873921852 255 255 255
0.1568994034756955 -1.5606495202190203 9.0803904850795121 255 255 255
-1.8117320102913281 -0.6697519720609123 7.5524096752736760 255 255 255
2.1815171603275463 1.4743862756538586 7.6998425290553163 255 255 255
3.6580715612532688 0.0085922263072629 7.7482833042009673 255 255 255
-1.5019547317990101 -0.5585910269879435 7.6654156703279774 255 255 255
-0.7709139584109368 -1.3776380678004585 8.6961003417347680 255 255 255
-2.5655091986128422 0.1193953570640878 6.1130995535658963 255 255 255
2.4815551117088073 1.2586016456091098 7.6998395996962499 255 255 255
3.4937583321044778 0.2755973589669711 8.0521260669120309 255 255 255
1.8889200278653984 1.6924839703684356 8.4200018294486387 255 255 255
2.3875819322866456 1.1533617372276799 7.6829463376969116 255 255 255
0.1060477799398796 -1.4089484812398838 9.0191106307460984 255 255 255
2.4199619980643923 -1.4454205461815881 8.6834195051099154 255 255 255
-0.6236475072548665 -0.5625668612069796 8.1906498220304087 255 255 255
-2.3769827256716911 0.0227250872628565 6.1836008896605437 255 255 255
1.8890743915054211 0.3322095407966563 8.5371517561429222 255 255 255
-0.3998033427342585 -1.5815578953080913 9.0289839295387058 255 255 255
2.2380365465210081 1.3787212601148766 7.5822311336356387 255 255 255
-2.4110126728245853 -0.0366299768229737 6.1954130891049450 255 255 255
2.4693050067485478 0.9722697856960610 7.7577093078328652 255 255 255
1.4546881186443987 -1.2463708745597386 9.9669220486681507 255 255 255
1.5671229461787555 1.6537440905258314 8.0240418464524108 255 255 255
-2.5302983012981670 0.5398660948800905 6.0025184438558226 255 255 255
-2.3562574477539049 0.0766263166591123 6.1721987674256740 255 255 255
2.2983793553856069 1.3559617816986900 7.6238200873340265 255 255 255
2.4494338907948365 1.3770253728954440 7.6914480599942134 255 255 255
2.3168874658610532 1.0856648677260885 7.6616894848591928 255 255 255
2.9198476629994206 1.1681029663076496 7.8940114716912726 255 255 255
2.4026491351342911 -1.4784793092089938 8.6946464499702785 255 255 255
-2.4274068137320950 -0.3550766812732626 6.2366803610487782 255 255 255
-1.9438277641699713 -0.4183341576257319 6.3660496753237972 255 255 255
-2.6384266844592368 0.5292220571315847 6.0069571898574505 255 255 255
-0.7730584810035127 -1.4706469921944656 8.7170818660485878 255 255 255
-2.6498642547556601 0.4322255856438583 6.0057242461617806 255 255 255
-2.4744247237809986 0.0168497067064015 6.1065271024762122 255 255 255
-2.0932476087886700 -0.4239362966485007 6.3254398889602808 255 255 255
-1.5801300662517559 0.2177799653433827 7.4677516591593536 255 255 255
-0.1635244384363837 0.5003318847997894 7.6825679827806495 255 255 255
-1.3761910506335069 -1.3858930484510152 8.7223609832317130 255 255 255
2.1595661338551437 1.4242345748226493 7.7007659558536368 255 255 255
0.5743931675998264 -0.3713235246291171 8.3824900483260034 255 255 255
-1.8429139513708295 -0.4458790619046515 6.3995760488339073 255 255 255
-2.3638776471188296 -0.1395443458262983 6.2219413591654193 255 255 255
-0.0197532868935744 0.5420282969966081 7.7078126128070537 255 255 255
1.9821450628521997 -1.2549791143816995 9.6392494669744906 255 255 255
-2.1505194072086868 -0.1925245308688503 6.3123000308215964 255 255 255
3.0122575395606463 0.7770117527353682 7.9954434191335979 255 255 255
-2.4060493682801081 0.0329225437625222 6.1863206649299460 255 255 255
2.0258191496879836 1.2834031859375770 8.0936414980988953 255 255 255
-1.4435731126597275 -1.3739591293980464 8.7068837642893779 255 255 255
2.0684545987529943 -1.2405829426882014 9.6240682586957433 255 255 255
-2.4313647352864098 0.7970917613612298 5.9812006573015033 255 255 255
0.1542827199746436 -1.2193183165284456 8.9885162206146187 255 255 255
2.3229970623829237 0.8722711930980959 7.7053620658765452 255 255 255
2.2238050525441286 0.5370342104700280 7.7804453521308599 255 255 255
-1.8368768795094144 -0.1515263788334563 6.3817215040075652 255 255 255
-2.1796602930315938 -0.2662165177178225 6.2844566130458972 255 255 255
-1.3508254100603030 -1.3501187575760327 8.7339196279251006 255 255 255
-0.4977559237128436 1.4646984988803626 7.3016309095526468 255 255 255
-2.5353698134168492 0.0694058539400743 6.1326387183212709 255 255 255
2.4836264204824854 -0.5826505376965543 7.9901185802531316 255 255 255
-1.9953879345917740 -0.3713042395776293 6.3847627247353573 255 255 255
-1.2082114964974351 -1.3639927509093517 8.8018405695665258 255 255 255
2.2419350619696869 1.1462222252309036 7.6499476323782600 255 255 255
-2.6456613479621738 0.0853290884093896 6.0828535693171251 255 255 255
2.5271496262855497 0.2610471365805206 7.8836688287994772 255 255 255
2.4244805159812794 -1.3603944074312833 8.6714343299140513 255 255 255
2.1853531690422230 1.2630026798683596 7.6799552865928185 255 255 255
2.0087697223986876 -1.2195160864111481 9.6107732755916988 255 255 255
-2.0361199560378664 -0.3170549914831758 6.3603788459168626 255 255 255
0.0232414288711167 -0.7063169378719828 8.0428010573594921 255 255 255
-2.0198478851938493 -0.3037688584258904 6.3693267218093474 255 255 255
-1.6763275164326727 -1.3849052480645738 8.6265257083751177 255 255 255
8.2879145242605912 4.0938167109882757 20.4024197441066342 255 255 255
-2.5307556440970833 -1.0163655312291717 6.6588460064974493 255 255 255
2.0750579621347343 0.5388577376687945 7.9555283383644131 255 255 255
-2.2356225421644740 -0.3875521159842734 6.3379063008091414 255 255 255
-1.6030090418341625 -1.3811916384817851 8.6359757137766753 255 255 255
2.0175547128929732 -0.2523400882269294 8.3754785391511195 255 255 255
-1.1163767337848818 -1.3414968307279471 8.8134593780651080 255 255 255
2.8715536571799611 -0.3323900589381626 8.1439016356349754 255 255 255
-2.0348255693916824 -0.4533266699296095 6.3215827797838164 255 255 255
0.1850308662017937 -1.5622114881395408 9.0271242496195754 255 255 255
2.1187581604845773 1.5916896948763892 7.7899865764120921 255 255 255
2.2127754537454778 -1.2350978383588429 9.6802903670267337 255 255 255
2.1802116070508109 0.5800991155185227 7.6978863520885437 255 255 255
-2.3989804127350833 -0.2460658963810520 6.2445201049142467 255 255 255
-2.5370160500552408 -0.1459520907809019 6.1796627144787752 255 255 255
-2.5362299324930828 0.2471391924521567 6.0917328454042776 255 255 255
2.4779414374648585 1.1820937838891679 7.7187148301058572 255 255 255
2.9210903345398616 0.9167993255051361 7.9355779144063083 255 255 255
0.1172565012380858 -1.5073733228091399 9.0250143078389069 255 255 255
2.4536427322920127 1.1543148707901838 7.7057448461324691 255 255 255
2.1808197744260664 -1.2442284978475853 9.6869715140335746 255 255 255
-2.0499090980312977 -0.1668163002101430 6.3116154191013782 255 255 255
-2.3833842119979840 -0.0515102500661265 6.2015320139903327 255 255 255
-2.6493802926527530 0.4521393427136353 5.9970226125391211 255 255 255
-2.1697226901041162 0.2463422192060394 6.1531059730909350 255 255 255
-2.3401904935214408 -0.0823343928647324 6.2203380651252091 255 255 255
-2.1005078832653212 -0.6051380733003013 6.4319688761290417 255 255 255
-2.5648990020744198 -0.1152622582657713 6.1740843329216455 255 255 255
2.2165062395625341 1.3946883124723095 7.5645686221417670 255 255 255
-0.0318880416525491 0.9386376584944260 7.6518093723093150 255 255 255
0.0864105876870632 -1.4608790776236147 9.0102315561847153 255 255 255
1.1100480819915250 -1.4691464307746886 9.6224810696494991 255 255 255
